1.613127661333869228e-02,-1.194929541069246481e-01,1.595657100809079187e-01
9.050203294329313419e-02,-1.783079153748247658e-01,-3.958452704708391792e-03
-1.467459128164195492e-01,3.892178513134239570e-02,-1.301949757627590409e-01
1.765360369048634970e-01,-1.789706172087639907e-02,9.227525592315537206e-02
1.441654341174396399e-02,-1.041006812742497067e-01,1.701623090883947198e-01
1.859783547983259178e-01,7.355721561943301401e-02,-1.177954508561950735e-03
-1.354445366311337606e-01,1.293168669483528953e-02,-1.465863191979527302e-01
4.221030516313382247e-02,-8.143192109135562184e-02,1.777276916110890059e-01
5.169228750321423066e-02,-7.470553200131865856e-02,1.781768528768117033e-01
1.144117495786306504e-01,-1.617096004422164945e-01,-2.756731185979892362e-02
-1.480160134424693685e-01,-1.131428297834749797e-01,7.273211005591913303e-02
1.696302081926761574e-01,-1.048237330033324061e-01,1.541354818837731983e-02
-4.195445879887767932e-02,1.855512218632928423e-01,-6.172979387566708553e-02
-1.667366987705920511e-02,1.134407416954159864e-01,1.638694201381842852e-01
6.828854464310912809e-02,-1.685287989729138125e-01,8.327495774404995721e-02
1.135751222145855860e-01,-1.599009638115723997e-01,3.914554107522539433e-02
1.153332169482098601e-01,1.607419868960861808e-01,-2.933023554415492562e-02
1.618459802356914667e-01,-4.926804928565591685e-02,-1.066702301541266468e-01
8.650937923337748137e-02,-3.659287599843071004e-02,1.765703506561029368e-01
9.724626910669106894e-02,-1.672001237557098619e-01,-5.086532965492644026e-02
5.033709804953968858e-02,-1.624045913061049340e-01,-1.053134620200478627e-01
-1.987533998208741437e-01,-1.346028665338365460e-02,1.777376557886644476e-02
-7.777270145575250482e-02,-1.828879561355618855e-01,2.243663095991002554e-02
8.188676302212989644e-02,-1.462128623428814167e-01,-1.091620672544229287e-01
9.502749915617626775e-02,-1.754307450492866016e-01,1.392221590032014303e-02
-1.793265441205487143e-01,8.843442910885877806e-02,-4.619775099626989394e-03
8.585978927940855765e-02,-1.742468533113253337e-01,-4.760389370626145339e-02
-5.088210674414095878e-03,1.030730504775710793e-01,-1.713185815297945946e-01
1.710918336920454197e-02,-1.916067171965287197e-01,-5.471875153554226628e-02
1.240144078043586701e-01,-1.790948926090938503e-02,-1.558835361779671580e-01
3.210934416585119883e-02,1.382776384875087639e-01,-1.408839405736393713e-01
3.436098813314314437e-02,5.044505471459570511e-02,1.904589692016510072e-01
1.516932077639145116e-01,-3.669199432937246975e-03,-1.302908580592483934e-01
-1.123203034812342016e-01,-1.150608648747578067e-01,-1.189333712637297702e-01
-1.163201015083017570e-01,-9.686308298117884963e-02,1.307179296825023707e-01
3.550614540248486772e-02,1.455963597115744745e-01,-1.324424919630985409e-01
1.814218708875467434e-01,-2.162286203086529173e-03,-8.415122864247598367e-02
-6.163519585443294480e-02,1.646062693378541053e-01,9.542472806699280052e-02
-2.284063678413925449e-02,-1.977698453224889241e-01,1.911527118337147044e-02
1.188384115448696682e-01,2.423651682086404649e-02,-1.590283722921295717e-01
-1.584100746826995199e-01,1.205522605640679812e-01,1.932357916936235098e-02
1.215844724423378875e-01,-1.056176391816693871e-01,-1.185838536842561686e-01
1.616733794971742244e-01,-1.157679287917991739e-01,2.143606832466254594e-02
6.223844291646365295e-02,-1.599817239846051398e-01,-1.026266252697014408e-01
2.459789789158695061e-02,-5.884420228021130378e-02,-1.895581791359070845e-01
9.194526913810287250e-02,-9.277749401434152998e-02,1.514542970256725907e-01
-1.362095665854737292e-01,-1.262759904688801615e-01,-7.417093906443879281e-02
1.056575511451223887e-01,-8.848145294441231434e-02,-1.449396921856176690e-01
5.094021237275897507e-02,6.151620620321653771e-02,1.833598951182661418e-01
-2.629757198441210614e-02,-1.311897944983524411e-01,1.486528692195503154e-01
-2.213386207816981366e-01,-1.291095774977701616e-01,-9.666126069676532762e-01
5.416485603956791225e-03,-4.164270002196920339e-01,-9.091530207680832421e-01
-4.782362276872786366e-01,-7.376424770412930432e-01,4.766274085612647871e-01
4.655711146175500748e-01,8.629311682288798302e-01,1.964518672166615798e-01
4.141262447330958385e-01,2.202422021806914876e-01,8.831720250335510780e-01
5.291577516445489238e-01,-7.707943650610769026e-01,3.547789743834564025e-01
-5.615500691202258698e-01,-8.201099319839727508e-01,1.099146001781072107e-01
-8.240337474703059994e-01,5.512712820566919580e-01,-1.306459207538271106e-01
-9.205117474530075117e-02,9.376914931095545191e-02,-9.913293740556212708e-01
-8.220822108191913058e-01,-3.729915979017352501e-01,-4.301838055405396988e-01
4.372693420562011046e-01,2.597604180351678060e-01,-8.609994469916527615e-01
3.345151669155582153e-01,6.438522040126138934e-01,-6.881525575710342180e-01
9.181796193176158249e-01,-1.305069655504280390e-01,-3.740509572405574801e-01
-4.989573317227488647e-01,-5.141836194364673984e-01,6.976079032116313527e-01
6.067541795001194505e-01,-3.276536508185652341e-01,7.242185103712845962e-01
7.608281036641526551e-01,3.949564528696048460e-01,-5.149271764157228315e-01
7.567666189484598682e-01,6.212283292685709668e-01,-2.034198794599398341e-01
7.600410861656529127e-01,-4.258396644529701125e-01,-4.909156012174764605e-01
4.124881625556810483e-01,-4.670296675437347056e-01,-7.821360529891372426e-01
-9.701616726950340608e-02,-9.785585224483398514e-01,1.816895193236467698e-01
-4.536202015901381612e-01,-1.548206659430310383e-01,-8.776441614380391387e-01
-7.240130477227029182e-01,5.593867344723359863e-02,-6.875143427887501213e-01
-5.164418660273116801e-01,9.471015772397012311e-02,-8.510686135900729088e-01
9.987961467757393574e-01,-2.371006062897304187e-02,-4.294287147951679484e-02
4.604640912822052234e-01,4.482666791947996776e-01,-7.661787030212465766e-01
6.265889054353031007e-01,6.509781440535238328e-01,4.285018081058916128e-01
3.025054077290978971e-01,4.485462748127656135e-02,9.520916661163294492e-01
7.519891645356177046e-01,-6.403208141547386267e-01,-1.565297140521133279e-01
-9.290337057366547524e-02,-7.389059519185596780e-01,-6.673731774317718246e-01
-5.449560261913340975e-01,6.149708637149160495e-01,-5.699418973013653522e-01
1.287657616775773374e-02,3.544145742151668110e-01,9.349997344224638685e-01
-1.267769158176454414e-01,1.086933090912375055e-01,-9.859581016323981650e-01
3.084444837674878981e-01,6.220275578931659943e-01,7.196830675060181814e-01
-1.730086275612614799e-01,3.503521967585836450e-01,-9.205005991392962716e-01
1.675979233472477820e-02,1.216419586216799520e-01,-9.924325383942116385e-01
-1.943472646868644738e-01,-3.753816396920334197e-01,9.062658358841815254e-01
6.535280039163721133e-01,-6.214107781938852382e-01,4.321455690407484673e-01
6.919934495700257315e-01,4.929860160559996207e-01,-5.273612175022068804e-01
1.786937353576024609e-02,-6.575192470328129479e-01,-7.532258129345025255e-01
4.418189839301404215e-02,-8.597895708672385062e-01,5.087335782925276328e-01
-9.650361521978174650e-01,-8.586565241871597920e-02,2.476536183582603579e-01
7.276725244822991323e-01,-6.563494553866797698e-01,-1.992437941998864981e-01
4.490792511096114437e-01,-8.897665350076257029e-01,-8.150668318214263075e-02
5.341573790013335321e-01,-8.180056505201014350e-01,2.134072402136612256e-01
5.659430667596089259e-01,-3.445223781802257967e-01,-7.490078611868972169e-01
-7.907134898701961845e-01,4.704346453868569200e-01,-3.917440763521987113e-01
4.846374639717765942e-01,-1.451721854958151758e-01,-8.625842365087443842e-01
-2.533829403116122370e-01,3.496089648394293259e-01,-9.019815171404259591e-01
-2.347401614221033550e-01,-1.248631113135450360e-01,-9.640053215872961268e-01
7.687132349976047996e-01,4.924317210286212054e-01,4.081555615991375174e-01
4.495877932659304022e-01,-4.126339597693209904e-01,-7.922146371983803670e-01
9.802919871124532447e-01,-1.336981864035819145e-01,1.454386982735712819e-01
-2.863215199436966452e-01,9.077635952401840180e-01,-3.065701263556945833e-01
7.200815558344252354e-01,-5.958314211796911231e-01,-3.556226518123710156e-01
-9.653417417736886996e-01,-2.570244651217085119e-01,-4.531827355759102810e-02
-2.546308632547261697e-01,6.569647080915333448e-02,-9.648041755721079582e-01
1.954066289974419057e-01,-8.275647793248132045e-01,-5.262630381899618959e-01
-4.832087704563229336e-01,4.949351194361559236e-01,7.221831566180469952e-01
-7.549150079117141754e-01,-4.580117730751878113e-01,-4.693916771249563857e-01
-8.295387547616758228e-01,-5.173104994714396998e-01,-2.103694404733204570e-01
-5.404849185680562496e-01,3.241687994511789905e-01,7.763959313796426898e-01
-2.526694162074989425e-01,-6.553482233321709927e-02,9.653306962772474353e-01
-1.596165970653992960e-01,8.838613182919484723e-01,-4.396722779167239747e-01
-8.348999697084429072e-02,7.587389182457384695e-01,-6.460221933843256492e-01
-8.049851845100797210e-01,-2.796696199961989371e-01,-5.232434962524183941e-01
1.414851768897163187e-01,9.899388579706943636e-01,1.732685823578207236e-03
7.016199997810409483e-01,-6.988548207898717668e-02,7.091159251503520444e-01
5.037294982899801488e-01,6.836688453041188662e-01,-5.280658126721117229e-01
2.733683751862636679e-01,9.486824827117539272e-01,-1.589694261293184696e-01
7.525658463804656417e-01,6.530731554783396620e-01,-8.449911511499925976e-02
-3.233722938490662391e-01,9.283043601741129969e-01,1.835248605844009562e-01
-4.447908584083402062e-01,6.594781286220003924e-01,6.060112953943979086e-01
7.773420660660115278e-01,-1.692906237490060806e-01,-6.058712710096898491e-01
4.301574299508915122e-01,-8.600112951657765681e-01,2.744907241517050567e-01
9.334683733962617636e-01,-5.911701667203778099e-02,3.537541154654392228e-01
9.633912673741186206e-01,-2.680052669918817632e-01,7.102310321274681038e-03
4.847647492251646456e-02,9.013727523499365235e-02,-9.947488642829895866e-01
5.651993444234856279e-01,-7.390577789710615075e-01,3.665287170272251149e-01
9.698207255842024033e-01,1.721412306968063133e-01,1.726706602799673029e-01
9.395587166948202729e-01,1.346979420032673458e-01,-3.147791008038285931e-01
8.993414174549024809e-01,-4.194212758089399529e-01,-1.235751117701619217e-01
-2.812835040940780407e-01,-3.305662357313057242e-01,9.008915329377846781e-01
-2.149629967527742769e-01,6.193953110571664977e-01,7.550763926037302731e-01
3.020694087585951149e-01,1.265401900450982831e-01,9.448500688445671258e-01
7.906220768129744725e-01,-4.327605619340784693e-01,-4.331685903784341929e-01
-7.200665876796253917e-01,-6.166046138197617266e-01,3.182811014238871028e-01
-8.017683934061752282e-01,9.983853074479542844e-02,-5.892365493701159362e-01
9.927408921880089832e-01,3.056008844701726349e-03,1.202338628993395164e-01
6.709662205560127379e-01,7.375594322786374057e-01,-7.622607644103306102e-02
-8.395961073199310898e-02,5.979486074794843065e-02,-9.946734933604421958e-01
-1.005131291594090898e-01,-7.659365460391531766e-01,-6.350104867702549560e-01
1.446625752546922272e-01,-5.085306687927843017e-01,-8.488046290035439201e-01
6.660367771346987764e-01,6.961561583104838302e-01,-2.678835843242583503e-01
1.332398616522526003e-01,-8.620861110168706043e-01,-4.889321798150498832e-01
-6.156678725750883707e-01,-7.811441819136424325e-01,-1.037633737950487134e-01
4.179351005599863944e-01,-8.578808596267316622e-01,-2.989492973833757783e-01
7.505860818020601011e-01,4.606481085446375023e-01,-4.737339484344339491e-01
2.083761425874878226e-01,1.989899727425682718e-01,-9.575919663135603610e-01
8.997795552056765400e-01,3.896440732319385036e-01,1.964032795782662544e-01
-2.440583766518938658e-01,4.916016987875909683e-01,-8.359206173645898907e-01
8.780803546839631435e-02,5.755452566186669561e-01,-8.130420693241732222e-01
2.183237564050305446e-01,3.540472846052434841e-01,9.093872979390302813e-01
-9.002915872354160243e-01,-2.468599315866404353e-01,-3.585181057215585110e-01
4.357852690587364353e-01,8.442870949775160838e-01,-3.118821901388914575e-01
6.506543346664618935e-03,-5.095561662973626671e-01,8.604127952802727020e-01
-2.125615988566492143e-01,-8.567151946962628384e-02,-9.733847941298807704e-01
5.807832912442478790e-01,7.626514506827900552e-01,-2.846990224481547038e-01
9.095355926634400845e-01,3.245131938372505798e-02,4.143572342177944123e-01
6.114451826024064340e-01,-5.527813782072345944e-02,-7.893536065359952891e-01
5.044691702599111288e-02,-9.794286746827335355e-02,9.939126235613797711e-01
-5.172094160939815222e-01,-2.635370693833782307e-01,-8.142742983568517223e-01
2.886800614712163870e-01,5.160018699277370002e-01,-8.064774592882640869e-01
-2.754464812753472658e-01,-3.609061741358896014e-02,-9.606386954978107795e-01
6.426271045049998243e-01,-7.445169456660932772e-01,-1.809003100371900374e-01
-6.714666435494806018e-01,2.651889758584949353e-01,6.919590693700872208e-01
1.910121240560248290e-01,-9.332653837433101396e-01,-3.041875933861500347e-01
-9.875126562140413844e-01,1.512168126927370126e-01,-4.418403983497065646e-02
-4.055462169345319667e-01,-5.586086994633852054e-01,-7.235251113913842014e-01
2.761207953301664242e-01,9.342399452730021370e-01,2.257277808390767970e-01
-2.569273630982115697e-01,9.564076203316356217e-01,1.388264883333783506e-01
2.324697026451608417e-01,-5.001334589779509177e-01,-8.341608721121009928e-01
-8.280075225694644159e-01,1.822909171899956826e-01,-5.302580165149868296e-01
4.323353204823033452e-02,9.669315642733186111e-01,-2.513448064285153660e-01
-2.043926033507724102e-02,4.323792959225702948e-01,-9.014601383835323389e-01
4.161361178480939560e-01,-7.862074329725616817e-01,-4.568463677879165408e-01
1.690210486683530744e-01,-8.573429254698112789e-01,-4.862046824681102719e-01
6.404262973685683757e-01,-6.926818702127901517e-01,-3.317317957587084254e-01
3.925308624725489248e-01,4.302209518394636834e-01,-8.129141741936246612e-01
-7.799643471185997434e-01,-6.257297498020957249e-01,1.085805859549868885e-02
-1.743299953676064606e-01,9.220180904656590792e-01,3.456757057838892311e-01
-6.240573351984917139e-01,-6.694132735834450454e-01,4.030363650283347865e-01
6.891312974495159005e-02,-9.488301218313480168e-02,-9.931002943045634801e-01
2.428664597835879513e-01,3.354029345189123434e-01,-9.102311542835089808e-01
5.050477051912676263e-01,-7.876547340830230004e-01,-3.528836002956737272e-01
-5.935448261564122419e-01,-7.937484626803386067e-01,1.329207182329127934e-01
-7.429821397680538286e-01,-8.716497014624494111e-02,6.636111873417207541e-01
-3.859865343379356162e-01,-8.994894421999364287e-01,-2.047758254302416980e-01
-1.051710442321071304e-01,8.674705473895456820e-02,-9.906634140560783841e-01
6.391259068489811845e-01,-6.579063685457882116e-01,-3.983431754421818960e-01
4.077333212168912646e-01,-8.187853197425285501e-01,-4.041585566873087121e-01
5.667299967759555912e-01,2.540617215984293242e-01,-7.837536298944761670e-01
9.503444606369084724e-01,-1.525330976052857723e-01,2.712546041483532844e-01
7.680423029235898813e-01,2.277820469683255744e-01,-5.985201416817550468e-01
2.879794787621318291e-04,-9.941856037821839021e-01,-1.076796280643379788e-01
-6.647098347929375484e-01,2.016393185303244628e-01,-7.193764110340093998e-01
-6.098856658579410173e-01,-5.701414176785665200e-01,-5.504345905087090207e-01
-7.999079269443766238e-01,-5.261079484842303700e-01,2.887173963467809523e-01
-9.991687801863393670e-01,3.410087766621899136e-02,-2.233559588048076097e-02
-8.432880344328467226e-01,-2.590354005648595748e-01,-4.709203247223341382e-01
7.492951337632743902e-01,-4.632151374423580936e-01,-4.732742745627887548e-01
6.251722164375951296e-01,-3.082649210688884756e-01,7.170302910148891318e-01
4.961427320683937658e-01,2.234883250480329264e-01,-8.389847185634162763e-01
-5.965807357393390076e-01,3.176953860607228952e-01,-7.369946183117196403e-01
2.817124763793025233e-01,5.502245060655289732e-01,7.860604770481629533e-01
1.321352455460931552e-01,-7.803947038743961340e-01,-6.111664119119007976e-01
-1.023639922800904517e-01,-7.946918772297590916e-01,5.983196748808474741e-01
7.037776986415759106e-01,1.404802182352559436e-01,6.963923170019483688e-01
9.518159154144666401e-01,-2.539156656387890343e-01,-1.719688864502283143e-01
5.123824558940316409e-01,-5.414503806099983940e-01,6.665551021703222112e-01
6.964474183809551411e-01,-1.693307544090560113e-01,6.973435946803863139e-01
8.159653085297501052e-02,9.035291034324677284e-01,4.206865405539860214e-01
-7.404598537943519743e-01,-3.586012027298876026e-01,-5.684403067337194804e-01
-6.484507177656138044e-01,-6.399781469685220103e-02,7.585617617196951379e-01
6.500986915308264447e-01,-4.203572477915877292e-01,6.329861574307837913e-01
9.917827097230197397e-01,-2.419017586265458791e-02,1.256260008366027470e-01
8.177153911330432567e-01,5.638610461144841768e-01,-1.157681293742521683e-01
-7.563669035637696769e-01,-3.389262851773915952e-01,5.594980611308753016e-01
8.920909894806493545e-01,8.324228026978858219e-02,-4.441220432076321556e-01
9.362249471982618809e-01,-2.906848060146081103e-01,-1.974466808935045059e-01
-6.281386167847838875e-01,6.624025072054210428e-01,4.082460000436876069e-01
3.781777508640269403e-01,3.609977063100302530e-01,8.524448631966310419e-01
-8.104269293862841339e-01,-2.537250812404779898e-01,5.280452397996140412e-01
-1.456128175991071305e-01,6.311751141921909669e-01,7.618496456488799140e-01
2.677791701508164812e-01,9.591344427201006217e-01,-9.140807853435171937e-02
-7.297957814995805759e-01,2.133420314305644883e-01,6.495254382474149324e-01
-4.559020815961508100e-01,6.750570462846651187e-01,5.800442019861244969e-01
2.250725027985704951e-01,-8.335213652791759742e-01,-5.045636749778228403e-01
6.156753007911095477e-01,1.632726689765717776e-01,7.708994484114277679e-01
5.827634357130245801e-01,4.865748508055362520e-01,-6.508699505734779622e-01
9.103136265885323208e-01,-4.105590160714657211e-01,5.263454730178678681e-02
5.540990318062596343e-01,-4.759559933071095261e-01,-6.829642416601388044e-01
8.850015631791524617e-01,-4.487809342329065476e-01,-1.239673595729792743e-01
-8.379689965251967132e-02,-8.831057125828047916e-01,4.616301333451297007e-01
-2.693122769234999048e-01,8.832939587480878041e-01,-3.837481986112920018e-01
-1.782422021499077691e-01,-9.425298473505578922e-01,2.826078629940884102e-01
8.287756109901710522e-01,5.589368041425419875e-01,-2.684465687600390629e-02
-5.761753390421765070e-02,-5.511958175880078414e-01,-8.323841603852658588e-01
-6.443508745027828333e-01,5.763526960697737955e-01,-5.026226420094921377e-01
-2.292922838220916304e-02,-9.694889410747949965e-01,2.440603278279144250e-01
-5.411893466403996378e-01,-8.403672976187519517e-01,-2.994822492057530594e-02
-1.028830218027825399e-01,-6.977542267536184228e-01,-7.089105182406226779e-01
1.527869506059183202e-01,4.500518592846856625e-01,-8.798349116049795082e-01
7.595187274088239793e-01,-6.048413018169600530e-01,2.393706379898034586e-01
-1.369211010995632083e-01,8.889244413724148863e-01,-4.371109122458775031e-01
6.844551204105503439e-01,-5.101607052582951551e-02,7.272678658457849554e-01
-9.572277805683299112e-02,8.212164273010891247e-01,5.625306474245801436e-01
-5.166209350105440690e-01,7.980997648256740185e-01,3.100638239041035304e-01
-6.786647233059940332e-01,-7.332027422217181067e-01,-4.275432303932948791e-02
-7.597069239142854036e-01,2.100951457596129668e-01,6.153904609960583194e-01
-3.834033559412259318e-01,-8.945368728039680972e-01,-2.297947994344147760e-01
6.632457435856183858e-01,-6.033995388465559495e-01,4.427347740299195089e-01
-7.195295976051924169e-01,6.918338603274779564e-01,-6.035783192336863223e-02
-1.544726858869234221e-01,9.878825293605139057e-01,-1.504318779890703554e-02
-3.347423485354310280e-02,-6.784298339168823855e-01,-7.339021978795819967e-01
2.925148716255904571e-02,-6.586279163595888386e-01,7.519000055131035420e-01
-7.310290483402050177e-02,-9.860536392159067187e-01,1.495131629452550182e-01
-8.258720924263718288e-01,-5.004522923341047091e-01,-2.597744984574621996e-01
-9.642913184924766234e-01,-7.614429045112725003e-02,2.536617829152341685e-01
-4.238415620023414099e-02,-7.821397393339628579e-01,-6.216598840666772707e-01
-3.503136585964172212e-01,-2.794536720022792742e-01,8.939720274176565784e-01
3.267045257301706696e-01,-9.190261796342182876e-01,-2.205788612137569438e-01
-7.070792152590303914e-01,7.065772511306112058e-01,-2.806370491191487182e-02
6.999400789070413520e-01,-7.097094776879944167e-01,7.997714185590149016e-02
-8.045403124462372491e-01,-5.933261620364911337e-01,2.605668996550426428e-02
1.748100447456930329e-01,6.499017104726368954e-01,7.396412745248535092e-01
2.391749431829160444e-01,-6.199860216483999986e-01,7.472701516279360856e-01
2.158730230582382725e-01,1.887923394003740984e-01,9.579959762438625681e-01
-8.454395830382162025e-01,1.722141792037378549e-01,-5.055434579868973710e-01
-6.161987678897896670e-01,2.441579932094401981e-02,7.872121360818977731e-01
-7.017835602773795367e-01,6.915583896492928373e-01,1.710170407593422648e-01
9.988886778107834985e-01,-4.516342498278382717e-02,1.347866407508920006e-02
-4.211253774773636160e-01,5.277833506472650038e-01,7.376300910511270903e-01
6.202147178770744951e-01,7.481228209993370237e-01,-2.358939347008627008e-01
8.757891364557781611e-01,-3.279097298661641791e-01,3.542154676537174751e-01
-6.039725100947644920e-01,7.671048467080516797e-01,-2.162576269333551515e-01
8.026388917322868632e-01,-3.599681305807451714e-01,4.755983120711950174e-01
-3.555973098473718674e-01,5.273202077328174031e-01,-7.716760665887795190e-01
-7.150710596754157322e-01,-1.312482910777247880e-01,-6.866201757186100041e-01
-8.992283610660051218e-01,4.194870890214739134e-01,1.241730115557986291e-01
-4.165830390260103488e-01,4.134391237579733702e-01,-8.096460106380397592e-01
-2.973026051782429180e-01,1.383594955512573166e-01,-9.447051449764796160e-01
9.938117498872763855e-01,-7.524553366136658983e-02,8.170872321854998066e-02
2.148547518130362877e-02,-9.916103335256895024e-01,1.274649787247626176e-01
-4.652070927486278151e-01,7.955750254701583479e-01,3.881272210300722447e-01
-3.768841076537216561e-01,-3.049658673376803852e-01,8.746165955188789365e-01
-9.953752635906579771e-01,-4.975658733826322094e-02,8.217278532627428356e-02
-9.873169642863488527e-01,-1.373732899722583667e-01,7.958511942936610795e-02
-1.981659256088604548e-01,7.708862733818221402e-01,6.053632128227399711e-01
5.268470741929190959e-01,-8.327188580601503354e-01,1.703275193424711176e-01
3.176822467128728733e-01,-2.624173034494289292e-01,-9.111614286029625642e-01
-3.273121872808337773e-02,-5.255547614662064992e-01,8.501299077322084230e-01
-9.882195213362057196e-01,1.127108863409395784e-01,1.035298688798567956e-01
-7.935874386629588884e-01,-6.076484075814932995e-01,3.134310067686332107e-02
-5.300476741167589254e-03,-1.215674184161683186e-01,-9.925690241620199750e-01
-9.534766862674828869e-02,-5.344109735191117094e-01,8.398295859695579235e-01
9.189947899016518429e-01,-3.904569274067057338e-01,-5.469884801102555677e-02
9.084875833254785205e-01,1.692937815517684685e-01,3.820862814487503423e-01
3.234194981686085851e-02,-9.811145094819192503e-01,-1.907047916705203738e-01
7.471084321075905921e-01,5.549729380115768773e-01,-3.658333346601103098e-01
-6.683185235200577168e-01,-7.291785011559701601e-01,-1.471362109472135193e-01
6.809192968803510215e-01,3.116619306070714246e-01,-6.627335453606081339e-01
2.016294805996173833e-01,9.787296713263585746e-01,-3.786532739230641376e-02
-8.435520082898781968e-01,4.144861800748264602e-01,3.414984858489005792e-01
5.137960215490376958e-01,-7.779061094006833876e-01,3.617675126341122760e-01
-4.328422386484175044e-02,-1.948998696951864673e-01,-9.798676016468845784e-01
5.013588228619272336e-01,-3.574531701832756592e-01,7.879508625951423539e-01
5.054029316009286399e-01,-8.584689898895760951e-01,-8.717149836476351110e-02
2.318502080891630956e-01,4.243536561528145623e-01,8.753110621480517661e-01
-7.841320295612175251e-01,4.587521734956558905e-01,4.179514368072173580e-01
-7.330762042484527674e-01,-4.548268373083646371e-02,-6.786240522154525223e-01
5.219571566925564898e-01,2.857961550033569220e-01,8.036673966030469796e-01
-4.886368184033886286e-01,-2.400645535079741766e-01,-8.388105089050987839e-01
2.203252695952432894e-01,-4.964078449293665707e-01,-8.396642347214542390e-01
-5.748452821747170038e-02,-5.867986716421118576e-01,-8.076898216361697580e-01
6.748591810631355825e-01,-3.412669702398620220e-01,6.542949952109515799e-01
4.975939129191602750e-01,-5.285718192060399057e-01,-6.877587729480567624e-01
6.122381069127702524e-01,1.340604973407585193e-02,-7.905597879189117938e-01
-3.635589760445085417e-01,9.119242953360275905e-01,1.903127702319473147e-01
-7.383746694693408275e-01,-3.164900436184462512e-02,6.736476734977607794e-01
-7.785515491798058463e-01,5.293162992756822449e-01,-3.371672294141599968e-01
9.223131599709499806e-01,2.932859858177688239e-01,2.516381637735026211e-01
-1.101016140695197237e-01,-7.974797441252571284e-01,-5.932147101085751828e-01
1.338670810461887462e-01,7.176176332887572729e-01,-6.834504641926990587e-01
-7.418823042854293393e-01,6.690100206252825865e-01,4.512470377853747272e-02
-8.853124312447954170e-01,-1.592648978100055512e-01,4.368713671196566839e-01
2.258224159192184777e-01,-3.715004814013071477e-01,-9.005507363758049610e-01
-2.816737216043066830e-02,-4.474223327775672665e-02,9.986013877953978657e-01
7.946332624785094056e-01,3.525287622562726098e-01,4.942483686820027255e-01
5.929507424747844091e-01,-8.981566938462745564e-02,-8.002140729402308361e-01
7.576276871573268956e-02,2.198180468648856523e-01,-9.725944834045858745e-01
7.291777429843057136e-03,-9.436021712431994501e-01,-3.310011667759394927e-01
-1.941716974710863963e-01,-1.188645513085785643e-02,9.808955418828342321e-01
8.600389863331188156e-01,-4.285165789401819691e-01,2.769593536252284993e-01
2.000433203838037077e-01,8.689452076242811795e-01,4.526774747175053570e-01
4.855853721133319700e-01,-1.558607707750122029e-01,-8.601826936895301534e-01
1.107352948260867803e-01,-4.369261445905199825e-01,8.926551622284182308e-01
1.305083235971576383e-01,-2.245023444153647074e-01,9.656947109847213717e-01
-9.166714027416581478e-01,-2.217738940188273000e-01,-3.324603424881933389e-01
1.643868262950056169e-01,8.557204455864187986e-01,4.906317257842551238e-01
3.220228081391450226e-01,6.921970061968185650e-01,6.458828188226877209e-01
-8.679271757044433322e-01,4.126772334805391962e-01,2.764053520475984183e-01
-8.126815576063053381e-01,6.510162975944065733e-02,-5.790599828422390294e-01
-3.378202823852601844e-01,3.720819204187273410e-01,-8.645417869060204596e-01
5.318477029426375013e-01,-6.632836853692155588e-01,5.264910004906745433e-01
9.005480321274031419e-02,6.787323337872117612e-01,-7.288432969370574055e-01
-7.632998782776405644e-01,-3.007672345897759447e-01,-5.717625087556524877e-01
-2.331722400245237747e-01,5.173410326035264850e-01,8.234008516310040715e-01
-2.866439299440183830e-01,-9.419789182555216023e-01,-1.746739104400143738e-01
-9.279191520791567616e-01,-3.309984336503882796e-01,1.714820227478330017e-01
2.292066620255607257e-01,-7.883694177749646093e-01,-5.709097715053262911e-01
